-18.2996 -90.4792 51.2755
-16.3022 -90.0519 50.5901
-14.3048 -89.6246 49.9048
-11.9386 -89.8757 49.8639
-9.57602 -90.1284 49.8236
-6.8517 -91.061 50.4302
-3.77097 -92.6756 51.6848
-0.700778 -94.2916 52.9438
1.63893 -94.5492 52.9113
5.04965 -96.8505 54.8238
10.2284 -102.563 59.9827
14.6661 -106.918 63.8546
18.3734 -109.914 66.4357
21.0096 -110.865 67.0725
23.9882 -112.502 68.3622
25.9133 -112.09 67.7017
27.8385 -111.678 67.0411
29.4196 -110.582 65.7275
31.0042 -109.485 64.4134
31.5707 -106.333 61.1362
32.8289 -104.548 59.1631
31.7349 -97.9615 52.6032
33.69 -97.5432 51.9323
32.977 -91.6337 46.0114
33.9509 -89.1517 43.3654
34.9355 -86.6675 40.7158
36.2588 -84.8688 38.7203
37.5892 -83.0687 36.7224
39.2513 -81.9558 35.3811
40.594 -80.1522 33.3796
41.9438 -78.3479 31.3751
43.9394 -77.921 30.6903
45.6174 -76.8046 29.3435
47.6147 -76.3773 28.6582
49.6122 -75.95 27.9728
51.2972 -74.8313 26.6242
52.6751 -73.0211 24.61
54.3691 -71.9005 23.2584
55.7593 -70.0876 21.24
57.4619 -68.966 19.8847
59.4717 -68.536 19.1951
61.1796 -67.4125 17.8387
61.9908 -64.2079 14.4775
64.0094 -63.776 13.7849
61.5801 -52.9284 3.05894
63.6251 -52.4909 2.35726
-57.8675 -74.8862 37.2258
-55.8102 -74.4461 36.5199
-48.244 -83.4159 44.7301
-43.861 -87.0162 47.8574
-41.059 -87.9291 48.4399
-37.8758 -89.5171 49.6633
-35.0897 -90.4343 50.2506
-32.6953 -90.6786 50.2007
-30.6874 -90.249 49.5117
-28.2982 -90.4937 49.4642
-25.5332 -91.4153 50.0587
-23.5305 -90.9869 49.3715
-20.776 -91.91 49.9703
-18.7769 -91.4823 49.2844
-16.7777 -91.0546 48.5984
-14.408 -91.3042 48.5569
-12.0417 -91.5538 48.5173
-9.67899 -91.8049 48.4782
-6.95447 -92.7344 49.0873
-4.23704 -93.6662 49.6982
-1.16484 -95.278 50.9596
1.17677 -95.5328 50.9285
4.58958 -97.8283 52.8447
10.1274 -104.207 58.663
14.5658 -108.551 62.5436
18.2735 -111.54 65.1304
21.2611 -113.17 66.4208
23.8887 -114.121 67.0632
25.8139 -113.709 66.4026
27.7391 -113.297 65.742
29.3201 -112.202 64.4278
30.5622 -110.424 62.4576
31.4708 -107.96 59.8303
32.7287 -106.179 57.8547
31.6339 -99.606 51.2835
33.589 -99.1877 50.6126
32.8753 -93.2892 44.6829
33.5171 -90.127 41.3748
34.5031 -87.647 38.7208
35.828 -85.8504 36.7229
37.16 -84.053 34.7219
38.8238 -82.9404 33.3793
40.1681 -81.1404 31.3741
41.5194 -79.3389 29.3664
43.5168 -78.9116 28.6811
45.5142 -78.4842 27.9957
47.5116 -78.0569 27.3103
49.5091 -77.6296 26.6249
50.8815 -75.8227 24.6107
52.261 -74.0152 22.5934
53.9566 -72.8958 21.2399
55.6555 -71.7765 19.8846
57.0527 -69.9644 17.8619
58.7606 -68.8424 16.5042
60.7738 -68.4117 15.8134
61.5865 -65.213 12.4466
63.6068 -64.7808 11.7534
-57.9737 -76.6157 35.8379
-55.9165 -76.1755 35.132
-47.9554 -85.7959 43.9964
-43.5737 -89.3873 47.1318
-41.1632 -89.6266 47.0777
-37.9798 -91.21 48.3048
-35.1935 -92.124 48.8946
-32.4142 -93.0395 49.4868
-30.408 -92.6103 48.7985
-28.0205 -92.8538 48.7528
-25.2571 -93.7727 49.3505
-23.2561 -93.3446 48.6639
-20.8793 -93.5911 48.6212
-18.1317 -94.5126 49.225
-16.136 -94.0857 48.5402
-13.7697 -94.3345 48.5012
-11.038 -95.2594 49.1104
-9.0476 -94.8336 48.4274
-6.32645 -95.7615 49.0396
-3.97599 -96.0137 49.006
-0.905264 -97.6212 50.2718
1.43463 -97.8756 50.2419
5.20443 -100.844 52.8137
10.0264 -105.851 57.3439
14.1106 -109.506 60.5815
18.1736 -113.166 63.8256
21.1615 -114.791 65.1199
23.7893 -115.739 65.7641
25.7145 -115.327 65.1035
27.6396 -114.916 64.4429
29.2206 -113.822 63.1275
30.4625 -112.047 61.1548
31.3708 -109.588 58.5243
32.6286 -107.809 56.5462
31.1957 -100.567 49.3072
33.1526 -100.148 48.6357
32.4399 -94.2617 42.6954
33.747 -92.472 40.701
34.4009 -89.3126 37.3842
35.7255 -87.5199 35.3832
37.384 -86.41 34.0411
39.0459 -85.2994 32.6979
40.3882 -83.5028 30.6908
41.7377 -81.704 28.6819
43.7333 -81.2771 27.9971
45.4111 -80.163 26.6485
47.4085 -79.7357 25.9631
49.0916 -78.6213 24.612
51.0907 -78.1936 23.926
52.4683 -76.3888 21.9074
54.162 -75.2714 20.5533
55.8591 -74.154 19.1974
57.2543 -72.3454 17.1728
58.6566 -70.5353 15.1457
60.3678 -69.4149 13.785
61.4822 -66.9113 11.0838
63.204 -65.7886 9.71937
-58.08 -78.3459 34.4494
-56.0227 -77.9058 33.7435
-48.0603 -87.5035 42.6261
-43.678 -91.0863 45.7683
-41.2675 -91.3241 45.7154
-38.0837 -92.9028 46.9463
-35.2972 -93.8137 47.5386
-32.5178 -94.7261 48.1334
-30.5116 -94.2969 47.445
-28.1241 -94.5396 47.4
-24.9808 -96.1269 48.6448
-22.9816 -95.6992 47.9588
-20.6064 -95.9446 47.918
-18.2347 -96.1907 47.8784
-15.8666 -96.4375 47.84
-13.5019 -96.6852 47.8029
-10.7718 -97.6081 48.4145
-8.41587 -97.8568 48.381
-6.06355 -98.1071 48.3481
-3.71475 -98.3581 48.3164
-1.00751 -99.286 48.9359
1.69269 -100.215 49.5578
5.10276 -102.499 51.4852
8.85543 -105.463 54.0694
11.1707 -105.721 54.0491
14.8952 -108.692 56.6423
20.7105 -115.735 63.1646
23.6899 -117.358 64.465
25.6151 -116.946 63.8044
27.1941 -115.855 62.4884
28.7768 -114.763 61.1711
30.0203 -112.99 59.1959
30.5892 -109.855 55.9032
31.1722 -106.716 52.6062
32.4439 -104.938 50.6208
32.3804 -100.43 45.9972
32.0043 -95.2366 40.706
33.313 -93.4504 38.7079
34.2985 -90.9789 36.047
35.9515 -89.8718 34.7056
37.6081 -88.7638 33.3629
39.2683 -87.6551 32.019
40.6086 -85.8621 30.01
41.9561 -84.0668 27.9992
43.6303 -82.9551 26.6505
45.308 -81.8426 25.3006
46.9892 -80.7294 23.9495
48.674 -79.6154 22.5972
50.6749 -79.1874 21.9106
52.3649 -78.0731 20.5559
54.0585 -76.9572 19.2005
55.7556 -75.8406 17.8439
57.1505 -74.0351 15.8168
58.5527 -72.2281 13.7873
60.2638 -71.1093 12.4253
60.4769 -66.5425 7.70675
62.5025 -66.1092 7.01171
-58.5835 -79.4084 32.4224
-57.3155 -77.6331 30.4363
-49.3465 -87.2079 39.3345
-44.9583 -90.781 42.4818
-41.762 -92.3531 43.7116
-38.5762 -93.9268 44.9456
-35.401 -95.5034 46.1827
-33.0063 -95.7431 46.1365
-30.6152 -95.9835 46.0915
-27.8461 -96.895 46.6924
-25.0841 -97.8081 47.2957
-23.0849 -97.3803 46.6097
-20.7096 -97.6241 46.5701
-18.3378 -97.8687 46.5318
-16.3421 -97.4418 45.847
-13.6048 -98.3601 46.4588
-10.8744 -99.2799 47.0729
-8.5185 -99.5279 47.04
-6.16608 -99.7766 47.0084
-3.81718 -100.026 46.9779
-1.47181 -100.276 46.9486
1.23034 -101.202 47.5724
4.6425 -103.48 49.5037
8.04063 -105.76 51.4403
11.4246 -108.044 53.3812
14.4413 -109.655 54.6726
17.0958 -110.591 55.3128
20.0931 -112.205 56.6109
22.384 -112.467 56.6003
24.325 -112.052 55.9343
25.9215 -110.958 54.6109
26.4937 -107.828 51.3126
27.4207 -105.374 48.668
28.6976 -103.597 46.6788
30.6562 -103.178 46.0067
31.2722 -100.039 42.6927
31.9024 -96.8959 39.3744
33.2109 -95.112 37.3744
34.1962 -92.6453 34.7098
35.8491 -91.5397 33.3671
37.5056 -90.4333 32.0232
39.1656 -89.3262 30.6781
40.5058 -87.5355 28.6672
41.8531 -85.7433 26.6539
43.2074 -83.9495 24.6382
44.8868 -82.8383 23.2864
46.2535 -81.0419 21.2664
48.2561 -80.6135 20.5792
50.2588 -80.185 19.8921
51.9505 -79.0711 18.5361
53.6458 -77.9564 17.1789
55.0371 -76.1548 15.1505
56.1298 -73.6651 12.449
57.5369 -71.8601 10.4151
59.2532 -70.7416 9.05006
60.0719 -67.5586 5.66709
59.1127 -60.2439 -1.75887
61.1577 -59.8064 -2.46059
60.2513 -52.4805 -9.90468
-59.4846 -79.8085 29.7524
-57.422 -79.3672 29.0447
-49.4516 -88.9195 37.961
-44.6708 -93.1505 41.7575
-41.8663 -94.0514 42.3488
-38.2917 -96.2885 44.2294
-35.118 -97.8616 45.4701
-32.725 -98.1001 45.4258
-30.3355 -98.3393 45.3827
-27.9496 -98.5793 45.3408
-25.1873 -99.4892 45.9466
-23.1881 -99.0615 45.2606
-20.8127 -99.3037 45.2223
-18.4408 -99.5467 45.1852
-16.0725 -99.7905 45.1493
-13.3367 -100.706 45.7642
-10.6079 -101.623 46.3814
-8.62108 -101.198 45.6997
-6.26856 -101.445 45.6693
-3.91957 -101.693 45.64
-1.21199 -102.616 46.2639
1.48858 -103.539 46.8909
4.54073 -105.137 48.174
7.58232 -106.738 49.4607
9.90312 -106.992 49.4411
13.6338 -109.946 52.0443
15.9405 -110.203 52.0296
18.9434 -111.812 53.3296
21.5876 -112.747 53.9759
23.1858 -111.655 52.6507
24.7876 -110.562 51.3243
25.7074 -108.114 48.6783
26.6377 -105.663 46.0293
28.5964 -105.244 45.3572
30.2175 -104.146 44.0242
31.1707 -101.691 41.3667
31.8006 -98.5545 38.0434
33.1089 -96.7737 36.0409
34.4243 -94.9914 34.036
35.7467 -93.2068 32.0293
37.73 -92.7825 31.3487
39.3882 -91.6773 30.003
40.7265 -89.8901 27.9902
41.7502 -87.4197 25.3085
43.4241 -86.3111 23.9573
45.1016 -85.2018 22.6049
46.7827 -84.0917 21.2513
48.4673 -82.9809 19.8965
50.1554 -81.8693 18.5405
51.8469 -80.7569 17.1832
53.8515 -80.3281 16.4954
54.9333 -77.8445 13.7945
56.3314 -76.0445 11.7612
57.4326 -73.5576 9.05291
59.1489 -72.4399 7.68721
59.6667 -68.5769 3.62557
58.7083 -61.2767 -3.81288
60.7551 -60.8388 -4.5152
60.7352 -55.59 -9.94593
-59.9886 -80.8788 27.7191
-57.9243 -80.4371 27.0108
-53.8902 -83.3194 29.5163
-45.1675 -94.1869 39.7487
-42.361 -95.0843 40.3418
-38.7843 -97.3155 42.2262
-35.2217 -99.5497 44.1154
-32.8286 -99.7867 44.0723
-30.439 -100.024 44.0305
-28.053 -100.263 43.9898
-25.6704 -100.502 43.9504
-23.2914 -100.743 43.9115
-20.9159 -100.983 43.8744
-18.5439 -101.225 43.8386
-16.1754 -101.467 43.804
-13.4394 -102.379 44.4213
-11.0798 -102.624 44.3891
-8.7237 -102.869 44.3587
-6.37109 -103.115 44.3296
-4.38601 -102.69 43.6484
-1.67644 -103.608 44.2748
0.665606 -103.856 44.2493
3.7215 -105.45 45.5343
6.40993 -106.372 46.1679
8.73619 -106.624 46.1478
11.0588 -106.876 46.1283
13.7296 -107.803 46.768
16.0434 -108.057 46.7521
19.0501 -109.661 48.054
21.3533 -109.917 48.0418
23.3085 -109.499 47.3709
24.9208 -108.405 46.0396
26.1954 -106.634 44.0467
27.4772 -104.862 42.0507
29.1035 -103.765 40.7146
30.3977 -101.989 38.7151
31.3646 -99.5356 36.049
33.0068 -98.4354 34.7075
34.3221 -96.6554 32.7006
35.6443 -94.8747 30.6908
37.6276 -94.4504 30.0103
39.2857 -93.3467 28.6632
40.6237 -91.5627 26.648
41.9689 -89.7763 24.6309
43.6411 -88.6696 23.279
44.9985 -86.8814 21.2571
46.6794 -85.7729 19.9022
48.364 -84.6628 18.5468
50.052 -83.5527 17.1895
51.7435 -82.442 15.831
53.748 -82.0131 15.1432
54.8295 -79.535 12.4379
56.2274 -77.7373 10.4027
57.3284 -75.2551 7.69069
59.0445 -74.139 6.32374
59.2613 -69.5984 1.58154
61.2922 -69.1639 0.88469
60.3524 -61.8743 -6.57232
60.3336 -56.6352 -12.0118
-60.0952 -82.6152 26.3257
-58.0309 -82.1736 25.6173
-53.9963 -85.048 28.1291
-45.2721 -95.8899 38.3821
-42.4655 -96.785 38.9771
-38.8884 -99.0099 40.8665
-35.3254 -101.238 42.7607
-32.9322 -101.473 42.7189
-30.5425 -101.71 42.6776
-28.1564 -101.947 42.6382
-26.1537 -101.519 41.951
-23.7728 -101.757 41.9134
-21.3954 -101.995 41.877
-18.647 -102.903 42.492
-16.2784 -103.143 42.4587
-13.5423 -104.054 43.0779
-11.1825 -104.296 43.0475
-9.19391 -103.871 42.3652
-6.83944 -104.114 42.3366
-4.4885 -104.359 42.3093
-2.14112 -104.605 42.2826
0.202771 -104.851 42.2577
2.90188 -105.769 42.8896
5.59412 -106.687 43.5245
7.5686 -106.265 42.847
10.2501 -107.187 43.485
12.9247 -108.109 44.126
15.2421 -108.361 44.1101
17.9043 -109.287 44.7547
20.213 -109.54 44.7419
22.1734 -109.121 44.0692
24.1338 -108.701 43.3966
25.4119 -106.933 41.3993
26.6969 -105.163 39.4003
28.3267 -104.067 38.0617
29.6241 -102.294 36.0584
30.9285 -100.52 34.0521
32.5724 -99.4208 32.7087
33.8892 -97.6435 30.6988
35.5418 -96.5426 29.3523
37.1981 -95.4401 28.0053
38.8578 -94.3377 26.6564
40.5211 -93.2345 25.3064
41.866 -91.4512 23.2868
43.5381 -90.3461 21.9337
44.8953 -88.561 19.9093
46.2598 -86.7736 17.883
48.2607 -86.3455 17.1964
50.2616 -85.9174 16.5099
51.6399 -84.1278 14.4782
53.335 -83.017 13.1178
54.7257 -81.2247 11.0819
55.8176 -78.7482 8.36981
56.9199 -76.2695 5.65412
58.3353 -74.472 3.60975
58.8558 -70.6222 -0.464363
60.8884 -70.1873 -1.16182
59.9494 -62.913 -8.63193
59.6364 -56.9995 -14.7581
-60.5994 -83.6894 24.2892
-58.1375 -83.9092 24.2245
-53.7083 -87.4382 27.3873
-46.1614 -96.2691 35.7235
-42.9605 -97.8225 36.9664
-38.9924 -100.704 39.5068
-35.8162 -102.263 40.7582
-33.0358 -103.161 41.3648
-30.646 -103.395 41.3254
-28.6416 -102.966 40.6376
-25.8771 -103.867 41.2497
-23.4978 -104.104 41.2139
-21.1221 -104.342 41.1794
-18.3752 -105.246 41.7975
-16.0084 -105.487 41.7653
-13.2738 -106.393 42.3883
-10.9157 -106.635 42.3592
-8.92891 -106.21 41.6774
-6.57611 -106.453 41.6507
-4.22683 -106.696 41.6253
-1.88112 -106.941 41.6004
0.461119 -107.186 41.5773
2.79978 -107.431 41.5555
5.49216 -108.347 42.1923
7.46665 -107.925 41.5148
10.1484 -108.844 42.1553
12.823 -109.764 42.7981
15.1406 -110.014 42.7835
17.8029 -110.937 43.4307
20.4584 -111.86 44.0808
22.0722 -110.769 42.7464
24.0326 -110.35 42.0737
25.3105 -108.584 40.0746
26.5953 -106.817 38.0724
28.225 -105.722 36.7332
29.5222 -103.953 34.7268
31.1607 -102.856 33.3846
32.8027 -101.759 32.0405
34.1176 -99.985 30.0287
35.4395 -98.2097 28.0145
37.0955 -97.1096 26.6656
38.7552 -96.0087 25.3155
40.4184 -94.9062 23.9648
42.085 -93.8039 22.6123
43.7553 -92.7007 21.2585
45.1106 -90.9183 19.2328
46.473 -89.1344 17.2047
48.4722 -88.7067 16.5187
49.8451 -86.9205 14.4869
51.5364 -85.8128 13.126
53.2314 -84.7044 11.7637
54.3141 -82.2345 9.05093
55.4075 -79.7615 6.3351
56.5113 -77.2871 3.61505
57.9282 -75.4923 1.56757
58.45 -71.6499 -2.51339
60.4844 -71.2147 -3.21145
59.5463 -63.954 -10.6934
59.5298 -58.7351 -16.151
-57.8481 -86.3045 23.4777
-54.2086 -88.5046 25.3553
-45.8737 -98.6355 35.0016
-43.065 -99.5239 35.601
-39.0965 -102.399 38.147
-35.9199 -103.953 39.4022
-33.1394 -104.847 40.0113
-30.7495 -105.08 39.9732
-28.3632 -105.315 39.9357
-26.3606 -104.886 39.2485
-23.9794 -105.121 39.2134
-21.6019 -105.358 39.1788
-18.4782 -106.923 40.4521
-16.1113 -107.162 40.4212
-13.3765 -108.066 41.0461
-11.0183 -108.306 41.0188
-9.03149 -107.881 40.3371
-6.67864 -108.122 40.311
-4.32926 -108.364 40.2868
-1.62092 -109.274 40.9207
0.358876 -108.85 40.2414
2.69764 -109.094 40.2208
5.03295 -109.34 40.2008
7.36469 -109.585 40.1826
10.0466 -110.501 40.8255
12.7215 -111.418 41.4709
15.0391 -111.667 41.457
17.7016 -112.587 42.1066
20.0105 -112.837 42.0962
21.9709 -112.418 41.4235
23.9313 -111.998 40.7509
25.209 -110.236 38.7492
26.1541 -107.8 36.0798
27.7854 -106.706 34.7388
29.0843 -104.938 32.7299
30.7244 -103.843 31.3852
32.3681 -102.746 30.0399
33.6845 -100.976 28.0243
35.337 -99.8776 26.676
36.993 -98.779 25.3259
38.6526 -97.6789 23.9751
40.3157 -96.5788 22.6226
41.9823 -95.4772 21.2694
43.6524 -94.3756 19.9144
45.0075 -92.5963 17.8862
46.3697 -90.8155 15.8556
48.369 -90.3878 15.1696
49.7417 -88.6047 13.1353
51.433 -87.4979 11.7737
53.1278 -86.391 10.4103
54.2102 -83.9257 7.69371
55.3033 -81.4574 4.97413
57.0157 -80.3468 3.60464
58.1263 -77.8748 0.87905
59.5485 -76.0811 -1.17215
59.7811 -71.5641 -5.94224
59.4403 -65.6795 -12.0781
59.4232 -60.4708 -17.5438
-66.0758 -82.3447 17.0438
-63.9955 -81.8996 16.33
-58.3507 -87.3806 21.4388
-54.3148 -90.2332 23.968
-46.7636 -99.0225 32.3368
-43.5603 -100.566 33.5866
-40.3677 -102.113 34.8394
-37.5728 -103.001 35.4462
-34.785 -103.891 36.0554
-32.0043 -104.783 36.667
-29.6126 -105.014 36.6289
-26.8442 -105.908 37.2448
-24.4612 -106.142 37.2097
-21.7052 -107.039 37.8297
-18.9561 -107.937 38.4522
-16.2141 -108.837 39.0772
-13.8506 -109.074 39.0493
-11.4906 -109.312 39.0221
-8.76619 -110.216 39.6531
-6.41501 -110.456 39.6289
-4.0673 -110.697 39.6065
-1.72316 -110.939 39.5847
0.256632 -110.515 38.9054
2.59549 -110.757 38.8861
5.28825 -111.668 39.5279
7.26273 -111.245 38.8504
10.2986 -112.826 40.157
12.9719 -113.74 40.8053
15.2879 -113.988 40.7934
17.6003 -114.236 40.7829
19.9093 -114.486 40.7734
21.8697 -114.066 40.1007
23.8301 -113.647 39.428
25.1076 -111.887 37.424
26.3921 -110.126 35.4174
27.6836 -108.363 33.4084
29.3185 -107.27 32.0649
30.6224 -105.505 30.0517
32.266 -104.41 28.7052
33.5822 -102.642 26.6877
35.2346 -101.546 25.3376
36.8905 -100.448 23.9868
38.55 -99.3499 22.6342
40.213 -98.2506 21.281
41.5574 -96.4767 19.2539
43.2292 -95.3755 17.8977
44.9045 -94.2743 16.5396
46.2665 -92.4967 14.5065
47.9507 -91.3928 13.146
49.325 -89.6125 11.1087
50.3949 -87.1538 8.3932
52.4046 -86.7238 7.7036
53.4903 -84.2625 4.98209
54.5867 -81.7981 2.25755
55.6935 -79.3315 -0.470587
57.1136 -77.5414 -2.52365
57.337 -73.0348 -7.29763
59.3767 -72.5984 -7.9975
58.7395 -66.0461 -14.8245
58.4296 -60.1664 -20.9807
-54.0265 -92.6187 23.2299
-46.8684 -100.729 30.967
-43.6649 -102.269 32.22
-40.472 -103.811 33.4766
-37.2896 -105.356 34.7368
-34.5034 -106.243 35.3485
-32.1081 -106.472 35.3111
-29.3342 -107.363 35.9272
-26.9477 -107.594 35.8923
-24.9432 -107.165 35.2045
-21.4316 -109.38 37.1358
-18.6841 -110.276 37.7612
-16.317 -110.511 37.7331
-13.9534 -110.748 37.7061
-11.5933 -110.984 37.6803
-8.86871 -111.885 38.3136
-6.15119 -112.787 38.9492
-3.80518 -113.027 38.9283
-1.09999 -113.931 39.5682
0.87627 -113.509 38.8901
2.85251 -113.086 38.212
5.54368 -113.994 38.8567
7.87206 -114.237 38.8418
10.5508 -115.147 39.4908
13.2225 -116.059 40.1422
15.1864 -115.639 39.4683
17.499 -115.886 39.4589
19.8081 -116.134 39.4506
21.7685 -115.714 38.7779
23.7288 -115.295 38.1053
25.0062 -113.538 36.0988
26.6303 -112.449 34.7575
27.9199 -110.69 32.7468
29.5529 -109.599 31.4024
30.8548 -107.837 29.3876
32.4966 -106.744 28.0401
34.1419 -105.65 26.6915
35.4614 -103.884 24.6706
37.443 -103.46 23.9907
38.7731 -101.692 21.9661
40.1103 -99.9227 19.9392
41.7767 -98.8245 18.5833
43.4467 -97.7254 17.2262
44.8014 -95.9521 15.1932
46.4802 -94.8512 13.8331
47.8473 -93.0753 11.7959
49.2215 -91.2979 9.7562
50.2912 -88.8435 7.03723
52.3009 -88.4135 6.34763
53.3863 -85.9561 3.62299
54.4824 -83.4964 0.894702
55.5889 -81.0345 -1.83719
57.0088 -79.2475 -3.89275
57.2317 -74.7494 -8.67361
59.2714 -74.313 -9.37348
59.5259 -69.8082 -14.1652
59.5057 -64.6209 -19.6472
-60.2302 -91.9489 20.0099
-58.5639 -90.8519 18.653
-54.9216 -93.0337 20.5444
-49.7224 -97.8436 25.0427
-43.7695 -103.973 30.853
-40.5763 -105.51 32.1131
-37.3937 -107.05 33.3769
-34.6073 -107.935 33.9914
-32.2119 -108.162 33.9547
-29.4378 -109.049 34.5734
-27.0512 -109.279 34.5398
-24.2894 -110.169 35.1627
-21.5347 -111.06 35.7881
-19.1622 -111.293 35.7593
-16.7932 -111.526 35.7317
-14.4278 -111.76 35.7053
-11.696 -112.656 36.3385
-9.33929 -112.892 36.3152
-6.25351 -114.453 37.6122
-3.54286 -115.354 38.2527
-0.839262 -116.256 38.8955
1.13525 -115.833 38.218
3.10972 -115.411 37.5405
5.79923 -116.316 38.1882
7.77028 -115.894 37.5119
10.4492 -116.802 38.1632
13.1211 -117.711 38.817
15.085 -117.29 38.1431
17.049 -116.87 37.4692
19.3599 -117.116 37.4616
21.6672 -117.363 37.4552
23.2842 -116.277 36.115
25.2464 -115.857 35.4417
26.5288 -114.102 33.4311
28.1563 -113.013 32.0874
29.4511 -111.256 30.0725
31.0875 -110.166 28.7257
32.7273 -109.074 27.3777
34.0397 -107.313 25.3569
35.6884 -106.22 24.0058
37.3406 -105.126 22.6536
38.6706 -103.361 20.6267
40.0076 -101.595 18.5973
41.3516 -99.8267 16.5656
43.3438 -99.4005 15.882
44.6984 -97.6301 13.8467
46.06 -95.8583 11.8089
48.0593 -95.4305 11.1229
49.118 -92.9833 8.40367
50.4991 -91.2072 6.35925
52.1971 -90.1037 4.99128
53.2822 -87.6507 2.26309
53.7652 -83.8461 -1.82907
54.875 -81.3878 -4.56573
56.2983 -79.6028 -6.62472
56.5241 -75.1129 -11.4139
58.5673 -74.6757 -12.115
59.42 -71.5323 -15.5488
59.3992 -66.355 -21.0388
-65.9102 -84.5322 9.51967
-59.4632 -91.2797 15.9591
-55.817 -93.4548 17.854
-50.6136 -98.252 22.3606
-44.6563 -104.366 28.1815
-41.0699 -106.554 30.097
-38.2728 -107.433 30.7102
-35.4827 -108.313 31.3259
-33.0837 -108.539 31.2892
-30.6881 -108.765 31.2537
-27.9156 -109.65 31.8754
-25.1502 -110.536 32.4995
-22.3918 -111.423 33.126
-19.6405 -112.312 33.755
-16.8962 -113.203 34.3863
-14.1589 -114.095 35.0201
-11.4287 -114.988 35.6563
-9.07372 -115.223 35.6347
-5.98944 -116.78 36.9359
-3.28037 -117.678 37.5794
-0.941223 -117.916 37.5632
1.39441 -118.155 37.5483
3.72649 -118.395 37.5346
6.05505 -118.636 37.5221
8.02434 -118.214 36.8464
10.7017 -119.119 37.5007
13.0197 -119.362 37.4919
14.9836 -118.942 36.818
16.9476 -118.522 36.1441
18.9115 -118.101 35.4702
21.2207 -118.346 35.4643
23.1829 -117.926 34.791
25.1451 -117.507 34.1177
26.7673 -116.421 32.7746
28.393 -115.334 31.4303
30.0223 -114.247 30.0847
31.3203 -112.491 28.0663
32.9583 -111.402 26.7177
34.2688 -109.644 24.6951
35.9156 -108.553 23.3434
37.566 -107.461 21.9907
38.894 -105.7 19.9619
40.2291 -103.936 17.9308
41.2487 -101.502 15.2214
43.2409 -101.075 14.5378
44.2765 -98.6375 11.823
45.9568 -97.5392 10.4599
47.6407 -96.4401 9.09561
48.7009 -93.9969 6.37231
49.7718 -91.5514 3.64529
51.4732 -90.4486 2.275
52.5616 -87.9993 -0.457974
53.0476 -84.2013 -4.55728
54.1607 -81.7468 -7.29877
55.8904 -80.6379 -8.67877
57.9247 -80.2027 -9.37683
58.1623 -75.719 -14.1774
56.6348 -67.1802 -23.0914
56.6293 -62.0097 -28.595
-68.1052 -86.7337 8.8275
-66.018 -86.2872 8.11131
-59.9664 -92.3659 13.9121
-55.5287 -95.8405 17.1158
-48.7547 -103.239 24.2441
-45.9345 -104.111 24.8519
-41.9532 -106.946 27.4244
-38.7647 -108.476 28.6935
-35.5868 -110.008 29.9662
-33.1877 -110.232 29.9307
-30.4097 -111.112 30.553
-27.6387 -111.994 31.1776
-25.2537 -112.221 31.147
-22.1181 -113.762 32.4342
-19.3683 -114.649 33.0662
-16.6256 -115.537 33.7005
-13.8899 -116.426 34.3372
-10.7913 -117.975 35.6372
-8.43973 -118.209 35.618
-5.72519 -119.103 36.262
-3.0177 -119.999 36.9085
-0.317249 -120.896 37.5573
1.65374 -120.474 36.881
3.98416 -120.713 36.8691
6.31105 -120.952 36.8583
8.27858 -120.531 36.1832
10.6002 -120.772 36.1744
12.9183 -121.013 36.1667
15.2328 -121.255 36.1602
17.195 -120.836 35.4869
19.1572 -120.416 34.8136
21.4648 -120.66 34.8096
23.4251 -120.24 34.1369
25.3855 -119.821 33.4642
27.0059 -118.737 32.1205
28.9681 -118.317 31.4472
30.2571 -116.566 29.4294
31.5533 -114.814 27.4092
33.1895 -113.727 26.0601
34.498 -111.972 24.0356
36.143 -110.883 22.6834
37.7915 -109.793 21.3301
39.1176 -108.035 19.2996
40.4507 -106.275 17.2667
41.4683 -103.845 14.5543
43.1381 -102.751 13.1936
44.1733 -100.317 10.4752
45.2193 -97.8812 7.75317
47.2219 -97.4527 7.06599
48.2836 -95.0135 4.33852
49.356 -92.5721 1.60733
51.0591 -91.4704 0.23524
52.149 -89.0252 -2.5019
53.2495 -86.5777 -5.24276
54.3605 -84.128 -7.98715
55.7853 -82.3485 -10.0515
57.8197 -81.9132 -10.7496
58.0567 -77.4384 -15.5572
56.5281 -68.9174 -24.4855
56.2259 -63.0833 -30.6836
-60.0733 -94.1061 12.5157
-55.6351 -97.5719 15.7264
-48.86 -104.953 22.869
-46.0396 -105.821 23.4791
-42.0578 -108.649 26.0576
-39.2567 -109.521 26.6743
-36.4628 -110.395 27.2935
-33.6758 -111.271 27.9152
-30.8959 -112.148 28.5392
-28.123 -113.026 29.1656
-25.7361 -113.252 29.1355
-22.5985 -114.788 30.4258
-19.4714 -116.327 31.7196
-17.1021 -116.556 31.6955
-13.9926 -118.098 32.9955
-10.8937 -119.643 34.2989
-8.54205 -119.875 34.281
-5.82734 -120.766 34.9273
-3.11966 -121.659 35.5761
-0.782089 -121.895 35.563
1.55196 -122.131 35.5511
3.88247 -122.368 35.5404
6.20945 -122.607 35.5308
8.17698 -122.186 34.8557
10.1444 -121.765 34.1806
12.4644 -122.004 34.1735
14.7808 -122.244 34.1676
16.7448 -121.824 33.4937
18.7087 -121.404 32.8198
21.0181 -121.646 32.8163
22.9802 -121.226 32.1431
24.9425 -120.806 31.4697
26.9046 -120.387 30.7965
28.5284 -119.303 29.4504
29.8191 -117.555 27.4296
31.1167 -115.806 25.4064
32.7546 -114.72 24.0555
34.396 -113.633 22.7033
35.7113 -111.88 20.6741
37.3615 -110.791 19.3189
39.0153 -109.701 17.9625
40.3482 -107.944 15.9273
41.3656 -105.519 13.2113
43.0352 -104.426 11.8495
43.7512 -101.329 8.44799
45.1159 -99.5651 6.40182
47.1185 -99.1367 5.71464
48.18 -96.7019 2.98361
49.252 -94.2649 0.248922
50.955 -93.1647 -1.12442
51.1194 -88.7142 -5.91444
52.2248 -86.2701 -8.66065
53.6458 -84.4943 -10.7261
55.0739 -82.717 -12.7941
57.1118 -82.2811 -13.4933
57.0522 -77.1426 -18.9955
56.4214 -70.6546 -25.8796
56.1185 -64.8324 -32.0872
-56.926 -97.3533 12.373
-51.3237 -102.765 17.5622
-46.536 -106.881 21.4506
-42.9415 -109.05 23.3779
-40.1368 -109.919 23.9958
-36.9531 -111.441 25.2738
-34.5484 -111.661 25.2389
-30.9997 -113.839 27.1819
-28.2267 -114.715 27.8107
-25.8397 -114.939 27.7819
-22.7018 -116.47 29.0756
-19.5744 -118.005 30.3731
-17.2051 -118.232 30.3502
-14.0953 -119.77 31.6536
-11.3663 -120.655 32.2975
-9.01281 -120.886 32.2802
-6.66282 -121.118 32.264
-3.95144 -122.006 32.9139
-1.24711 -122.897 33.5663
1.08879 -123.131 33.555
3.42115 -123.367 33.5449
5.74998 -123.603 33.5359
7.71927 -123.182 32.8602
10.0428 -123.419 32.8531
12.0103 -122.998 32.178
14.3285 -123.236 32.1727
16.2943 -122.816 31.4981
18.26 -122.395 30.8237
20.5712 -122.635 30.8208
22.5351 -122.215 30.1469
24.8411 -122.456 30.1458
26.463 -121.375 28.7991
28.0884 -120.293 27.4512
29.3807 -118.547 25.4274
31.015 -117.463 24.0765
32.6527 -116.378 22.7244
34.2941 -115.293 21.371
35.9389 -114.207 20.0165
37.2593 -112.455 17.9831
38.9129 -111.367 16.6255
40.2457 -109.613 14.5878
41.2628 -107.192 11.8683
42.9323 -106.101 10.5053
43.6479 -103.01 7.09909
44.3777 -99.916 3.68799
46.0683 -98.8199 2.3177
47.4486 -97.0558 0.263739
48.2118 -93.9547 -3.15878
49.2994 -91.5188 -5.9025
50.3977 -89.0806 -8.64982
51.8132 -87.3089 -10.7159
52.9307 -84.8665 -13.4698
54.9687 -84.4305 -14.1691
56.4035 -82.6547 -16.2418
56.3468 -77.5259 -21.7535
54.5268 -68.3678 -31.4011
54.5299 -63.2262 -36.9334
-63.9505 -95.4384 7.81418
-63.4607 -92.4018 4.48057
-58.6123 -96.4952 8.35662
-52.6091 -102.54 14.2106
-47.8153 -106.646 18.1054
-44.9946 -107.508 18.7203
-40.2414 -111.622 22.629
-37.0574 -113.139 23.9107
-34.6526 -113.358 23.8769
-31.1036 -115.531 25.8247
-28.3304 -116.403 26.4559
-25.9433 -116.625 26.4281
-22.8051 -118.153 27.7255
-19.6775 -119.683 29.0265
-17.308 -119.909 29.0048
-14.5701 -120.789 29.6481
-11.8391 -121.67 30.2938
-9.85229 -121.245 29.612
-7.49868 -121.475 29.5959
-4.7836 -122.36 30.247
-2.07556 -123.246 30.9006
0.625439 -124.134 31.5565
2.95964 -124.368 31.547
5.29032 -124.602 31.5386
7.61758 -124.837 31.5315
9.58678 -124.416 30.8558
11.9087 -124.652 30.8504
13.5252 -123.574 29.5044
15.4945 -123.152 28.8286
17.4637 -122.731 28.1529
20.1241 -123.628 28.8228
22.0898 -123.207 28.1483
24.3977 -123.446 28.1478
26.0213 -122.366 26.7993
27.6483 -121.285 25.4496
28.9422 -119.542 23.4229
30.5781 -118.459 22.0702
32.2175 -117.376 20.7163
34.1921 -116.953 20.0387
35.507 -115.206 18.0048
36.829 -113.457 15.9684
38.4844 -112.37 14.609
39.8187 -110.619 12.5683
41.16 -108.866 10.5253
42.8294 -107.776 9.1611
43.5447 -104.691 5.75012
43.9567 -100.938 1.65184
45.6489 -99.8428 0.279754
46.7169 -97.4154 -2.46085
47.1711 -93.6534 -6.5736
48.8845 -92.554 -7.95295
49.9842 -90.1198 -10.7044
51.0944 -87.6833 -13.4595
53.1306 -87.2477 -14.1582
54.2567 -84.808 -16.9188
55.3933 -82.3659 -19.6829
55.0414 -76.5775 -25.8933
54.4195 -70.1139 -32.8024
54.4221 -64.9827 -38.3429
56.511 -64.5357 -39.0597
-65.652 -94.5996 3.78957
-63.5683 -94.1538 3.07458
-58.7193 -98.2369 6.95896
-53.1084 -103.62 12.1672
-47.5292 -109.01 17.3862
-44.3203 -110.518 18.6629
-41.1219 -112.028 19.9433
-37.9341 -113.54 21.2273
-35.1413 -114.406 21.8542
-31.9729 -115.923 23.1448
-28.815 -117.441 24.4391
-26.4261 -117.662 24.412
-23.2859 -119.185 25.7123
-20.5319 -120.058 26.3525
-18.1588 -120.282 26.3308
-15.045 -121.81 27.6402
-12.6825 -122.037 27.6222
-10.6921 -121.611 26.9392
-8.3349 -121.838 26.9229
-5.61611 -122.719 27.5752
-2.90437 -123.602 28.23
-0.199675 -124.486 28.8871
2.49795 -125.372 29.5467
4.83058 -125.605 29.5389
6.8033 -125.183 28.862
9.13056 -125.416 28.8561
11.1015 -124.995 28.1798
13.0726 -124.573 27.5034
14.6943 -123.494 26.1544
17.0145 -123.73 26.1508
19.3312 -123.965 26.1485
21.6443 -124.202 26.1474
23.9541 -124.439 26.1475
25.2389 -122.701 24.1214
26.8694 -121.621 22.7693
28.5035 -120.54 21.416
29.8059 -118.798 19.3839
31.7822 -118.376 18.7058
33.4269 -117.292 17.3488
34.7451 -115.547 15.3112
36.0704 -113.801 13.2712
37.4029 -112.053 11.2288
39.0669 -110.965 9.86528
40.4117 -109.214 7.81863
42.0844 -108.125 6.45206
43.4415 -106.372 4.40121
43.853 -102.626 0.296935
45.2294 -100.869 -1.76056
46.2989 -98.4454 -4.50534
48.0034 -97.3493 -5.88285
48.7799 -94.2571 -9.31973
50.4968 -93.1583 -10.7014
51.6032 -90.7271 -13.4589
52.4151 -87.6274 -16.9079
53.2409 -84.5247 -20.3617
54.6843 -82.7529 -22.4422
54.0352 -76.3083 -29.3529
-61.6914 -99.1315 4.95676
-55.2701 -105.788 11.4855
-54.3947 -103.411 8.80365
-49.201 -108.14 13.3721
-46.3746 -108.995 13.99
-42.779 -111.146 15.9315
-38.0386 -115.242 19.8617
-35.2457 -116.105 20.491
-32.077 -117.617 21.7852
-28.9188 -119.131 23.083
-26.5298 -119.35 23.0571
-23.3893 -120.868 24.361
-20.6351 -121.739 25.0036
-18.262 -121.962 24.9831
-15.5201 -122.835 25.6299
-13.1557 -123.059 25.6124
-11.5323 -121.982 24.2616
-9.53843 -121.555 23.5774
-6.81418 -122.433 24.2303
-4.09697 -123.311 24.8855
-1.74847 -123.539 24.8736
1.31635 -125.073 26.2034
4.01241 -125.957 26.8659
5.98866 -125.534 26.1878
8.31953 -125.765 26.1819
10.294 -125.343 25.5044
12.2686 -124.92 24.8268
14.2431 -124.498 24.1493
16.5651 -124.731 24.1463
18.8837 -124.965 24.1446
20.8547 -124.543 23.4683
23.168 -124.779 23.4683
24.7966 -123.7 22.1157
26.4288 -122.621 20.7618
27.7276 -120.883 18.7285
29.3686 -119.802 17.3716
31.3466 -119.379 16.6929
32.6613 -117.637 14.6541
33.6529 -115.235 11.9323
35.3116 -114.15 10.5694
36.6473 -112.404 8.52342
38.3147 -111.317 7.15748
40.3087 -110.891 6.47329
41.6602 -109.142 4.42187
42.6994 -106.729 1.68378
43.4317 -103.652 -1.74278
44.8096 -101.898 -3.80326
45.5665 -98.8155 -7.23828
46.6497 -96.3936 -9.99142
48.0541 -94.6331 -12.061
48.848 -91.5431 -15.5087
50.8841 -91.1075 -16.2073
51.6991 -88.013 -19.6623
52.2246 -84.2504 -23.8117
53.0695 -81.1495 -27.2769
52.7284 -75.3821 -33.5105
51.5208 -67.6102 -41.8283
-63.3865 -98.3016 0.921413
-61.3046 -97.8562 0.207035
-55.288 -103.855 6.09301
-50.0901 -108.571 10.6698
-47.26 -109.423 11.2888
-42.1078 -114.149 15.8813
-38.5295 -116.298 17.8337
-35.7346 -117.157 18.4647
-32.181 -119.311 20.4256
-29.0226 -120.821 21.727
-26.6335 -121.039 21.7022
-23.8703 -121.905 22.3442
-21.1142 -122.772 22.9885
-18.7392 -122.993 22.9687
-15.9954 -123.863 23.6173
-13.9997 -123.436 22.9325
-12.0041 -123.009 22.2477
-10.0084 -122.582 21.563
-7.64752 -122.805 21.5479
-4.9266 -123.68 22.2043
-2.57449 -123.906 22.1923
0.134121 -124.783 22.853
3.19389 -126.314 24.1882
5.17365 -125.891 23.5089
7.86285 -126.773 24.1762
9.8391 -126.35 23.4981
12.1666 -126.58 23.4945
13.7917 -125.504 22.1419
16.1156 -125.736 22.1395
18.436 -125.968 22.1383
20.4088 -125.546 21.4614
22.3815 -125.124 20.7845
24.3542 -124.702 20.1076
25.9882 -123.623 18.7519
27.6256 -122.545 17.395
29.2665 -121.465 16.0369
30.9109 -120.385 14.6776
31.8953 -117.988 11.9547
33.2203 -116.248 9.90999
34.8806 -115.164 8.54518
36.2179 -113.421 6.49623
37.887 -112.335 5.12849
39.5597 -111.248 3.75946
41.5571 -110.821 3.07409
42.2765 -107.753 -0.352954
43.3279 -105.342 -3.09881
44.7057 -103.59 -5.16167
45.4622 -100.514 -8.60144
46.2327 -97.435 -12.046
47.9493 -96.3392 -13.4301
48.4339 -92.5927 -17.5716
50.4718 -92.1567 -18.2709
50.9828 -88.4045 -22.4215
51.2077 -83.9849 -27.2689
52.0576 -80.8888 -30.7407
51.7211 -75.1322 -36.9856
50.8161 -68.0401 -44.6255
-57.459 -106.032 5.40845
-56.1817 -104.305 3.37764
-50.5878 -109.652 8.62461
-47.7557 -110.5 9.24537
-42.6011 -115.214 13.8468
-39.4072 -116.712 15.1396
-36.2238 -118.213 16.4361
-32.6681 -120.36 18.4011
-29.1264 -122.511 20.3709
-26.7372 -122.727 20.3474
-24.3516 -122.944 20.325
-21.5935 -123.808 20.9711
-19.2166 -124.026 20.9519
-16.4708 -124.893 21.6022
-14.4734 -124.466 20.9169
-12.476 -124.039 20.2315
-10.4786 -123.611 19.5461
-8.11585 -123.833 19.5316
-5.39299 -124.705 20.1898
-3.03902 -124.928 20.1784
-0.328478 -125.802 20.8409
2.37499 -126.678 21.5057
4.71485 -126.905 21.4991
7.40599 -127.783 22.1682
9.73704 -128.012 22.1646
11.7134 -127.589 21.4865
13.6896 -127.166 20.8084
15.6659 -126.743 20.1303
17.9881 -126.973 20.1297
19.9627 -126.551 19.4521
21.9372 -126.129 18.7746
23.9117 -125.706 18.0971
25.5473 -124.629 16.7396
27.1863 -123.551 15.3809
28.4935 -121.817 13.3399
30.1414 -120.738 11.9782
31.4609 -119.001 9.9329
32.4573 -116.607 7.20218
34.1211 -115.524 5.83504
36.115 -115.097 5.15088
37.7839 -114.013 3.7819
39.4566 -112.928 2.41174
41.4539 -112.501 1.72637
42.173 -109.438 -1.70542
43.2241 -107.032 -4.45491
44.6017 -105.283 -6.52014
45.3578 -102.213 -9.96466
45.8155 -98.4795 -14.103
47.2231 -96.7241 -16.1786
49.2557 -96.2893 -16.876
49.7521 -92.5475 -21.0276
50.2662 -88.8019 -25.1854
50.4941 -84.3905 -30.0412
51.6491 -81.962 -32.8263
51.3135 -76.2169 -39.0813
-58.3563 -106.486 2.69189
-56.2885 -106.043 1.98235
-51.8693 -109.452 5.2509
-49.0318 -110.296 5.87222
-45.0363 -113.069 8.48869
-39.5119 -118.418 13.7705
-36.3283 -119.914 15.0705
-32.7722 -122.056 17.0402
-29.6115 -123.557 18.3482
-27.2205 -123.771 18.3252
-24.4552 -124.631 18.9713
-21.6969 -125.492 19.6199
-19.3199 -125.709 19.6017
-16.574 -126.573 20.2545
-14.5766 -126.145 19.5691
-12.5792 -125.718 18.8837
-10.5818 -125.291 18.1983
-7.85345 -126.158 18.8571
-5.49586 -126.38 18.8457
-3.14181 -126.602 18.8354
-0.43108 -127.473 19.5002
2.631 -128.995 20.842
4.61252 -128.571 20.1621
7.30385 -129.446 20.8336
9.63499 -129.673 20.8311
11.6113 -129.25 20.153
13.5876 -128.828 19.4749
15.5638 -128.405 18.7967
17.8862 -128.634 18.7974
19.8607 -128.211 18.1199
22.1778 -128.441 18.1223
23.8097 -127.366 16.7648
25.7843 -126.944 16.0873
27.0842 -125.214 14.0463
28.3912 -123.484 12.0029
30.039 -122.405 10.6399
31.0263 -120.017 7.90871
32.0242 -117.627 5.17383
34.0181 -117.2 4.48964
35.3586 -115.462 2.43472
37.031 -114.379 1.06341
38.707 -113.294 -0.309214
40.3865 -112.209 -1.68295
41.4303 -109.809 -4.43358
42.1666 -106.749 -7.87617
43.8654 -105.66 -9.25662
44.6248 -102.595 -12.7071
45.0854 -98.868 -16.8526
46.4964 -97.1149 -18.9317
48.5326 -96.6792 -19.6304
49.032 -92.9442 -23.7892
49.5492 -89.2053 -27.9541
49.78 -84.802 -32.8182
50.6362 -81.7162 -36.3019
50.3053 -75.9818 -42.5683
-60.0451 -105.666 -1.35538
-58.7577 -103.942 -3.39453
-53.5435 -108.62 1.20598
-50.3085 -110.101 2.49204
-46.3072 -112.866 5.11261
-40.3901 -118.842 11.0693
-37.5876 -119.69 11.7051
-34.0259 -121.825 13.6777
-30.0968 -124.605 16.3231
-27.3242 -125.461 16.9691
-24.9366 -125.674 16.9486
-22.5525 -125.888 16.9292
-20.172 -126.103 16.9111
-17.7949 -126.319 16.8941
-15.4214 -126.535 16.8784
-13.0514 -126.752 16.8639
-10.6849 -126.97 16.8506
-8.32196 -127.189 16.8385
-5.96252 -127.408 16.8276
-3.60661 -127.628 16.8179
-0.533677 -129.144 18.1596
2.17016 -130.013 18.8292
4.5102 -130.237 18.825
7.2017 -131.11 19.4988
9.53294 -131.335 19.4977
11.5093 -130.912 18.8195
13.4855 -130.489 18.1414
15.8097 -130.716 18.1426
17.7842 -130.294 17.4651
19.7588 -129.871 16.7876
21.7333 -129.449 16.1101
23.7077 -129.027 15.4326
25.3432 -127.952 14.0727
26.6447 -126.226 12.0287
27.9532 -124.497 9.98225
29.6027 -123.42 8.61751
30.5915 -121.036 5.88215
31.591 -118.65 3.14306
33.258 -117.569 1.77237
35.2554 -117.142 1.087
36.9278 -116.06 -0.285563
38.6037 -114.977 -1.65931
40.2831 -113.893 -3.03429
41.3266 -111.498 -5.78849
42.0625 -108.443 -9.23583
42.8126 -105.386 -12.688
43.2623 -101.669 -16.8358
44.0423 -98.6053 -20.2983
46.0803 -98.1693 -20.9976
47.4998 -96.4172 -23.0821
48.0042 -92.6883 -27.2487
48.5261 -88.9558 -31.4213
48.4579 -83.901 -36.9888
49.6228 -81.4792 -39.7846
49.2965 -75.7555 -46.0623
-60.5478 -106.773 -3.41957
-58.4712 -106.328 -4.13214
-54.4342 -109.078 -1.51772
-50.8051 -111.193 0.436721
-46.8016 -113.95 3.06256
-43.2025 -116.071 5.02734
-38.4625 -120.116 9.00031
-34.5135 -122.885 11.6449
-30.9637 -125.016 13.6266
-28.5672 -125.226 13.6042
-25.4183 -126.721 14.9235
-23.0323 -126.933 14.9047
-20.6499 -127.146 14.8871
-18.271 -127.36 14.8708
-15.8956 -127.574 14.8556
-13.893 -127.146 14.1684
-11.1555 -128.005 14.829
-8.79065 -128.222 14.8175
-6.42936 -128.44 14.8072
-4.0716 -128.658 14.798
-1.35701 -129.523 15.4664
1.70914 -131.035 16.8141
4.05103 -131.257 16.8104
6.74448 -132.126 17.4861
9.07766 -132.35 17.4854
11.0557 -131.926 16.8067
13.3835 -132.151 16.8079
15.3597 -131.728 16.1298
17.336 -131.305 15.4517
19.6568 -131.532 15.4552
21.2885 -130.46 14.0954
22.9238 -129.387 12.7344
24.9019 -128.964 12.0556
26.205 -127.24 10.0087
27.5151 -125.514 7.95927
28.8324 -123.787 5.90743
29.8244 -121.406 3.16724
31.1575 -119.676 1.10996
32.4976 -117.944 -0.949708
34.1716 -116.863 -2.32407
35.8492 -115.781 -3.69961
37.2069 -114.045 -5.76531
38.8932 -112.962 -7.14391
39.9435 -110.569 -9.90402
40.6861 -107.519 -13.3585
42.0756 -105.776 -15.4352
42.8429 -102.721 -18.8982
44.8755 -102.286 -19.5956
45.353 -98.5704 -23.7591
46.7759 -96.8205 -25.8471
47.2833 -93.0984 -30.0209
47.5025 -88.7151 -34.8956
47.4389 -83.6696 -40.4733
48.6089 -81.2511 -43.2746
49.1885 -77.5134 -47.473
51.2793 -77.0661 -48.1904
-60.6551 -108.519 -4.8208
-58.5784 -108.074 -5.53337
-54.541 -110.817 -2.91301
-50.9115 -112.926 -0.953821
-48.4621 -113.123 -0.99319
-44.0818 -116.513 2.3107
-39.7227 -119.908 5.62178
-37.3014 -120.112 5.59208
-31.0679 -126.712 12.2657
-28.6713 -126.92 12.2446
-25.5221 -128.41 13.5674
-23.136 -128.621 13.5498
-20.7535 -128.833 13.5335
-18.3745 -129.045 13.5183
-15.9991 -129.258 13.5043
-13.9964 -128.83 12.8171
-11.2587 -129.686 13.48
-8.89379 -129.902 13.4697
-6.89639 -129.474 12.7844
-4.53678 -129.691 12.7758
-1.82024 -130.552 13.446
0.889242 -131.415 14.1185
3.23475 -131.635 14.1149
5.9319 -132.5 14.7917
8.6221 -133.367 15.4709
10.6019 -132.943 14.7916
12.9315 -133.166 14.7933
14.9095 -132.743 14.1146
16.8876 -132.32 13.4359
18.8656 -131.897 12.7572
20.5008 -130.826 11.3949
22.1396 -129.754 10.0315
24.1211 -129.33 9.35156
25.4275 -127.608 7.30094
26.7411 -125.884 5.24793
28.3956 -124.809 3.8791
29.7214 -123.083 1.82189
31.0544 -121.355 -0.237762
32.3942 -119.626 -2.29986
34.0682 -118.547 -3.67535
35.7457 -117.466 -5.05214
37.1032 -115.733 -7.12022
38.7894 -114.651 -8.49994
39.8394 -112.263 -11.2637
39.9453 -107.913 -16.1069
41.3382 -106.172 -18.1871
41.794 -102.468 -22.3492
43.8319 -102.032 -23.0485
44.6253 -98.9775 -26.5253
45.7421 -96.5748 -29.312
46.2544 -92.8589 -33.4935
46.4783 -88.4834 -38.3772
45.8112 -82.1347 -45.3586
48.5013 -83.0017 -44.6793
50.5833 -82.5563 -45.3937
-55.4323 -111.284 -5.6439
-52.5799 -112.113 -5.01785
-48.5684 -114.854 -2.38254
-45.7355 -115.688 -1.74984
-40.9835 -119.71 2.2361
-36.2563 -123.737 6.2306
-31.5537 -127.769 10.2335
-29.1553 -127.976 10.2129
-26.004 -129.461 11.5388
-23.2397 -130.31 12.195
-20.8571 -130.52 12.1797
-18.478 -130.73 12.1658
-16.1025 -130.942 12.153
-14.0998 -130.514 11.4658
-11.7295 -130.726 11.4549
-9.36276 -130.94 11.4451
-6.99954 -131.154 11.4366
-5.36443 -130.084 10.0731
-2.6442 -130.942 10.7445
-0.289799 -131.158 10.739
2.06118 -131.375 10.7347
4.7638 -132.236 11.412
7.45937 -133.099 12.0918
9.44442 -132.674 11.4107
11.7795 -132.895 11.4119
14.111 -133.116 11.4142
15.7461 -132.046 10.0508
17.3847 -130.976 8.68611
19.0268 -129.905 7.32025
20.6726 -128.833 5.95322
22.6612 -128.407 5.27087
24.3121 -127.334 3.902
25.9666 -126.26 2.53194
27.9587 -125.834 1.84839
29.2861 -124.111 -0.211798
30.6206 -122.386 -2.27449
32.6198 -121.958 -2.96047
33.9647 -120.231 -5.02669
35.3169 -118.502 -7.09537
36.6759 -116.771 -9.16644
37.7204 -114.388 -11.9319
38.4552 -111.352 -15.3935
38.886 -107.661 -19.5532
40.2839 -105.922 -21.6375
42.3182 -105.487 -22.3356
42.7878 -101.787 -26.5085
43.586 -98.7374 -29.9919
44.708 -96.3379 -32.7839
44.9173 -91.9743 -37.6699
44.8419 -86.9518 -43.2606
45.7035 -83.8882 -46.7657
46.5793 -80.8216 -50.2757
-53.0773 -113.217 -7.08273
-51.0076 -112.774 -7.79291
-48.1639 -113.603 -7.16152
-43.0155 -118.248 -2.49939
-39.8129 -119.718 -1.18753
-33.9485 -125.647 4.83598
-31.1594 -126.487 5.4861
-27.2426 -129.24 8.16004
-24.0964 -130.722 9.49125
-21.7102 -130.93 9.47607
-18.9545 -131.777 10.1377
-16.9483 -131.348 9.44928
-14.9421 -130.919 8.76089
-12.5682 -131.129 8.74988
-10.1978 -131.341 8.74014
-7.83099 -131.553 8.73155
-5.83005 -131.124 8.04496
-3.46853 -131.338 8.03826
-1.11042 -131.551 8.03273
0.886966 -131.124 7.34736
3.59505 -131.981 8.02529
6.29609 -132.84 8.70563
8.28643 -132.414 8.02268
10.6268 -132.632 8.02316
12.6155 -132.207 7.34079
14.2575 -131.137 5.9738
15.9031 -130.067 4.60555
17.5523 -128.995 3.23612
19.5461 -128.569 2.55196
21.54 -128.142 1.86781
23.1962 -127.07 0.495894
25.1918 -126.643 -0.188867
26.8532 -125.569 -1.5625
28.8506 -125.141 -2.24786
30.5174 -124.066 -3.6234
32.1876 -122.991 -5.00012
33.5342 -121.266 -7.06932
34.8879 -119.54 -9.14098
36.2485 -117.812 -11.215
37.2944 -115.433 -13.9847
37.3905 -111.103 -18.8391
37.8261 -107.418 -23.0065
39.8622 -106.982 -23.7052
41.2687 -105.244 -25.7949
41.743 -101.551 -29.9756
42.2349 -97.8543 -34.1623
43.3636 -95.4578 -36.9604
42.9638 -89.7965 -43.2518
42.8983 -84.7821 -48.8545
44.9873 -84.3352 -49.5713
-50.3367 -115.782 -7.84665
-49.0449 -114.072 -9.89953
-43.8923 -118.705 -5.22911
-40.6859 -120.169 -3.9149
-34.0533 -127.353 3.46682
-31.264 -128.19 4.11938
-27.7251 -130.3 6.12425
-24.2003 -132.414 8.13397
-21.8139 -132.62 8.11998
-19.0581 -133.464 8.78396
-17.0519 -133.035 8.09556
-15.0457 -132.606 7.40717
-12.6717 -132.815 7.39741
-10.3012 -133.024 7.3888
-7.57007 -133.874 8.06124
-5.5709 -133.446 7.37526
-3.21104 -133.658 7.37034
-1.21356 -133.231 6.68494
0.783818 -132.804 5.99958
3.49209 -133.658 6.67988
6.19331 -134.514 7.3626
8.18364 -134.088 6.67965
10.5241 -134.304 6.68138
12.8612 -134.521 6.68429
14.5014 -133.453 5.31666
16.1451 -132.385 3.94783
18.1355 -131.959 3.26485
19.7845 -130.889 1.89426
21.7766 -130.463 1.21071
23.4309 -129.392 -0.161757
25.0888 -128.321 -1.5354
26.7501 -127.248 -2.91028
28.7474 -126.821 -3.59564
30.4141 -125.747 -4.97237
32.0843 -124.673 -6.35021
33.4306 -122.951 -8.42179
34.7842 -121.228 -10.4959
36.1446 -119.503 -12.5723
37.1903 -117.129 -15.3455
37.2858 -112.807 -20.2071
37.7209 -109.13 -24.3804
39.7571 -108.694 -25.0791
41.1633 -106.959 -27.1712
41.6372 -103.274 -31.3578
41.5059 -98.2836 -36.9464
42.6378 -95.8908 -39.7492
41.933 -89.5896 -46.7506
42.7905 -86.5386 -50.264
44.5751 -85.44 -51.6812
-49.1517 -115.812 -11.296
-46.6967 -116.002 -11.3324
-43.4777 -117.46 -10.0188
-38.7414 -121.454 -6.00185
-34.4101 -124.82 -2.65195
-28.9646 -130.094 2.73375
-25.0575 -132.835 5.42321
-21.9177 -134.31 6.76388
-19.1617 -135.151 7.4303
-17.1555 -134.722 6.74191
-14.7797 -134.929 6.73267
-12.4073 -135.137 6.7247
-10.0386 -135.346 6.71788
-7.67331 -135.555 6.71233
-5.67414 -135.127 6.02635
-3.31418 -135.338 6.02262
-0.598687 -136.188 6.70288
1.39526 -135.761 6.01869
3.38912 -135.334 5.33454
5.73675 -135.548 5.33498
8.08086 -135.761 5.33668
10.4214 -135.976 5.33954
12.4101 -135.551 4.65716
14.3987 -135.125 3.97482
16.3873 -134.7 3.29248
18.0327 -133.632 1.92188
20.0231 -133.207 1.23893
21.6737 -132.138 -0.133512
23.3279 -131.069 -1.5071
24.9857 -129.999 -2.88199
26.6469 -128.928 -4.258
28.3117 -127.856 -5.63527
29.6492 -126.139 -7.70624
31.6518 -125.711 -8.39342
32.9998 -123.991 -10.468
34.3549 -122.271 -12.5451
35.3931 -119.902 -15.3193
36.442 -117.532 -18.0973
36.5405 -113.218 -22.9673
38.5714 -112.784 -23.6642
38.7016 -108.463 -28.5449
40.1129 -106.73 -30.6413
40.2784 -102.402 -35.5342
39.5305 -96.1237 -42.5318
40.363 -93.0839 -46.0415
41.8255 -91.3402 -48.1554
42.3764 -87.6452 -52.3745
44.4671 -87.1979 -53.0919
-48.8713 -118.183 -12.0181
-46.8034 -117.741 -12.7277
-43.5842 -119.194 -11.4106
-40.7575 -120.017 -10.766
-36.7971 -122.74 -8.08876
-29.0691 -131.796 1.36815
-26.6685 -131.996 1.35171
-23.8965 -132.831 2.015
-20.385 -134.936 4.03905
-17.6306 -135.774 4.70838
-14.8832 -136.614 5.3802
-12.5108 -136.821 5.37336
-10.1419 -137.028 5.36779
-7.77655 -137.236 5.36336
-5.77737 -136.808 4.67738
-3.05642 -137.654 5.35827
-0.701653 -137.864 5.35748
1.2923 -137.437 4.67329
3.28616 -137.011 3.98913
5.63388 -137.223 3.99082
7.97808 -137.435 3.99365
9.96851 -137.009 3.31067
12.3074 -137.223 3.31538
14.296 -136.797 2.63304
16.2846 -136.372 1.9507
18.2732 -135.946 1.26832
19.9203 -134.88 -0.104101
21.5709 -133.813 -1.47767
23.2249 -132.745 -2.85251
24.5464 -131.035 -4.92041
26.5438 -130.607 -5.60578
27.8757 -128.894 -7.67728
29.2148 -127.18 -9.75123
30.89 -126.108 -11.1333
32.2414 -124.39 -13.2115
33.2741 -122.028 -15.9876
34.3173 -119.663 -18.7673
35.3712 -117.295 -21.5507
35.154 -112.344 -27.1268
37.192 -111.908 -27.8261
37.3286 -107.595 -32.7165
38.4319 -105.217 -35.5167
37.9788 -99.6024 -41.8192
39.4236 -97.8653 -43.9294
40.2556 -94.8315 -47.4439
-42.9229 -122.189 -11.4488
-41.246 -121.118 -12.8327
-38.0441 -122.57 -11.506
-34.8527 -124.025 -10.1757
-27.1498 -133.065 -0.691879
-24.0007 -134.528 0.652968
-20.4889 -136.627 2.68183
-17.3627 -138.096 4.03447
-14.9867 -138.3 4.02767
-12.6142 -138.505 4.02207
-10.2452 -138.71 4.01763
-7.87978 -138.917 4.01446
-5.88061 -138.489 3.32848
-2.79847 -139.967 4.69629
-0.804614 -139.541 4.01214
1.18934 -139.114 3.32795
3.53891 -139.324 3.33016
5.88496 -139.534 3.33364
8.22749 -139.746 3.33833
10.5665 -139.958 3.34416
12.5534 -139.533 2.66239
14.5402 -139.108 1.98065
16.527 -138.683 1.29891
18.5138 -138.258 0.61717
20.1591 -137.193 -0.755804
22.1477 -136.768 -1.43815
23.4601 -135.062 -3.50544
24.7796 -133.355 -5.57512
26.4406 -132.287 -6.95356
27.7724 -130.577 -9.02743
29.1113 -128.865 -11.1038
30.7864 -127.794 -12.487
32.1376 -126.08 -14.5676
33.17 -123.722 -17.3472
33.889 -120.718 -20.8278
34.9444 -118.355 -23.6153
34.7284 -113.414 -29.2004
36.768 -112.977 -29.9003
36.5889 -108.028 -35.4981
37.6954 -105.654 -38.3031
36.9318 -99.4048 -45.3173
-41.3524 -122.851 -14.2233
-41.5743 -118.632 -19.0052
-34.9586 -125.749 -11.5591
-31.4006 -127.832 -9.54119
-27.4815 -130.549 -6.83755
-20.5927 -138.318 1.32454
-18.2096 -138.519 1.31651
-15.83 -138.721 1.30963
-13.0857 -139.556 1.98741
-10.7149 -139.76 1.98354
-7.98302 -140.598 2.66549
-5.621 -140.803 2.66471
-3.26253 -141.01 2.66515
-1.26691 -140.583 1.98039
1.08637 -140.791 1.98254
3.08023 -140.364 1.29838
5.42814 -140.573 1.30245
7.77252 -140.782 1.30772
10.1134 -140.992 1.31414
12.102 -140.567 0.631763
14.0906 -140.141 -0.0505813
16.0792 -139.716 -0.732926
18.0679 -139.291 -1.4153
20.0564 -138.865 -2.09765
22.045 -138.44 -2.77999
23.3572 -136.737 -4.84959
24.6765 -135.032 -6.92165
26.3375 -133.966 -8.30128
27.6691 -132.259 -10.3775
29.0078 -130.551 -12.4562
30.6828 -129.481 -13.8407
32.0338 -127.77 -15.9236
33.066 -125.416 -18.7068
31.84 -118.568 -26.383
33.8727 -118.133 -27.0804
34.9435 -115.771 -29.877
34.431 -110.192 -36.1785
36.483 -109.753 -36.8826
37.5892 -107.384 -39.6913
36.8248 -101.148 -46.7161
-43.7527 -120.817 -19.6921
-41.6813 -120.374 -20.4028
-33.5493 -129.987 -10.2188
-32.2602 -128.292 -12.2829
-26.0855 -134.776 -5.48171
-21.8171 -138.121 -2.08097
-19.8004 -137.689 -2.77299
-17.0436 -138.518 -2.09707
-13.9257 -139.98 -0.734218
-11.5513 -140.182 -0.738101
-8.45095 -141.647 0.630796
-6.08708 -141.851 0.630601
-3.72677 -142.056 0.631562
-1.72929 -141.628 -0.0538356
0.26809 -141.201 -0.739202
2.62137 -141.407 -0.735764
4.97113 -141.614 -0.731116
7.66974 -142.456 -0.0353097
10.0107 -142.664 -0.0276406
11.9994 -142.239 -0.710017
13.9879 -141.813 -1.39236
15.9765 -141.388 -2.0747
17.9652 -140.963 -2.75708
19.9537 -140.537 -3.43943
21.9423 -140.112 -4.12177
23.2543 -138.412 -6.19381
24.5735 -136.711 -8.26824
25.8996 -135.008 -10.3451
27.2328 -133.303 -12.4243
28.2418 -130.959 -15.2032
29.9202 -129.89 -16.5901
30.2915 -126.263 -20.772
30.0284 -121.352 -26.3581
33.6801 -124.119 -23.5565
33.7677 -119.842 -28.452
34.8383 -117.485 -31.2521
34.325 -111.918 -37.5631
30.3513 -99.2861 -51.6068
31.1753 -96.2715 -55.1331
33.2678 -95.8238 -55.8512
-45.214 -116.475 -27.9341
-38.5802 -123.553 -20.4649
-32.3659 -130.013 -13.6639
-30.3191 -129.575 -14.3662
-23.7893 -136.675 -6.86138
-20.6482 -138.128 -5.50282
-17.5176 -139.582 -4.14064
-14.3977 -141.039 -2.77489
-11.6549 -141.869 -2.09176
-8.55427 -143.33 -0.719298
-6.19032 -143.532 -0.718368
-3.82991 -143.735 -0.716156
-1.83244 -143.308 -1.40155
0.164947 -142.88 -2.08692
2.51832 -143.085 -2.08229
4.86816 -143.29 -2.07652
7.56696 -144.129 -1.37828
9.908 -144.336 -1.36948
11.8967 -143.911 -2.05186
13.8852 -143.486 -2.7342
15.8738 -143.06 -3.41655
17.8625 -142.635 -4.09892
19.8511 -142.209 -4.78127
21.4995 -141.148 -6.15898
23.1515 -140.087 -7.53797
24.4704 -138.388 -9.61477
25.7963 -136.689 -11.694
27.1294 -134.987 -13.7757
28.1381 -132.647 -16.5581
29.8165 -131.58 -17.9462
30.1872 -127.96 -22.134
32.2058 -127.528 -22.8266
31.6301 -121.986 -29.1261
30.4376 -115.16 -36.8381
31.2048 -112.164 -40.3498
30.0722 -105.325 -48.0824
30.2436 -101.04 -53.0139
-46.464 -116.355 -31.3906
-39.4449 -124.039 -23.2257
-37.3753 -123.597 -23.9358
-39.811 -115.638 -32.8601
-27.6307 -132.112 -15.0794
-24.4718 -133.556 -13.7233
-17.6217 -141.277 -5.5003
